ply
format ascii 1.0
element vertex 1170
property float x
property float y
property float z
property uchar red
property uchar green
property uchar blue
end_header
102.000000 60.000000 134.000000 9 2 2
102.000000 61.000000 127.000000 106 22 25
102.000000 61.000000 128.000000 93 20 22
102.000000 61.000000 129.000000 73 17 19
102.000000 61.000000 130.000000 60 14 15
102.000000 61.000000 131.000000 52 13 16
102.000000 61.000000 132.000000 43 11 14
102.000000 61.000000 133.000000 46 13 14
102.000000 61.000000 134.000000 20 4 4
102.000000 61.000000 135.000000 11 2 2
102.000000 61.000000 136.000000 1 0 0
102.000000 62.000000 127.000000 102 22 26
102.000000 62.000000 128.000000 91 19 24
102.000000 62.000000 129.000000 74 18 23
102.000000 62.000000 130.000000 76 17 22
102.000000 62.000000 131.000000 65 14 18
102.000000 62.000000 132.000000 43 10 12
102.000000 62.000000 133.000000 33 8 10
102.000000 62.000000 134.000000 22 5 6
102.000000 62.000000 135.000000 23 5 6
102.000000 62.000000 136.000000 1 0 0
102.000000 63.000000 127.000000 105 26 35
102.000000 63.000000 128.000000 93 22 28
102.000000 63.000000 129.000000 87 23 29
102.000000 63.000000 130.000000 75 18 22
102.000000 63.000000 131.000000 63 13 17
102.000000 63.000000 132.000000 54 10 14
102.000000 63.000000 133.000000 45 9 13
102.000000 63.000000 134.000000 34 8 10
102.000000 63.000000 135.000000 22 4 6
102.000000 63.000000 136.000000 12 2 3
102.000000 63.000000 137.000000 3 0 1
102.000000 64.000000 127.000000 103 25 31
102.000000 64.000000 128.000000 108 29 34
102.000000 64.000000 129.000000 98 26 28
102.000000 64.000000 130.000000 91 22 26
102.000000 64.000000 131.000000 80 18 22
102.000000 64.000000 132.000000 70 15 19
102.000000 64.000000 133.000000 58 13 17
102.000000 64.000000 134.000000 45 9 12
102.000000 64.000000 135.000000 34 7 9
102.000000 64.000000 136.000000 25 6 7
102.000000 64.000000 137.000000 15 4 3
102.000000 64.000000 138.000000 5 1 1
102.000000 65.000000 128.000000 107 22 25
102.000000 65.000000 129.000000 103 23 26
102.000000 65.000000 130.000000 93 20 24
102.000000 65.000000 131.000000 79 13 19
102.000000 65.000000 132.000000 66 11 15
102.000000 65.000000 133.000000 57 12 14
102.000000 65.000000 134.000000 47 11 11
102.000000 65.000000 135.000000 34 7 6
102.000000 65.000000 136.000000 24 5 5
102.000000 65.000000 137.000000 15 3 3
102.000000 65.000000 138.000000 18 4 5
102.000000 65.000000 139.000000 7 1 2
102.000000 66.000000 128.000000 105 21 24
102.000000 66.000000 129.000000 100 20 28
102.000000 66.000000 130.000000 89 16 23
102.000000 66.000000 131.000000 78 15 21
102.000000 66.000000 132.000000 68 15 20
102.000000 66.000000 133.000000 44 11 13
102.000000 67.000000 130.000000 102 23 31
102.000000 111.000000 98.000000 83 78 84
102.000000 111.000000 99.000000 70 64 74
102.000000 112.000000 97.000000 75 74 89
102.000000 112.000000 98.000000 63 59 73
102.000000 112.000000 99.000000 51 46 55
102.000000 112.000000 100.000000 42 38 45
102.000000 113.000000 95.000000 84 84 92
102.000000 113.000000 96.000000 65 64 69
102.000000 113.000000 97.000000 56 57 61
102.000000 113.000000 98.000000 41 41 42
102.000000 113.000000 99.000000 52 51 53
102.000000 113.000000 100.000000 54 53 54
102.000000 114.000000 92.000000 101 97 114
102.000000 114.000000 93.000000 87 83 96
102.000000 114.000000 94.000000 84 82 92
102.000000 114.000000 95.000000 64 64 73
102.000000 114.000000 96.000000 44 47 53
102.000000 114.000000 97.000000 57 59 66
102.000000 114.000000 98.000000 47 48 49
102.000000 114.000000 99.000000 40 41 41
102.000000 114.000000 100.000000 24 24 23
102.000000 114.000000 101.000000 25 25 27
102.000000 115.000000 91.000000 69 70 74
102.000000 115.000000 92.000000 68 67 82
102.000000 115.000000 93.000000 79 82 96
102.000000 115.000000 94.000000 60 59 71
102.000000 115.000000 95.000000 47 47 55
102.000000 115.000000 96.000000 57 57 63
102.000000 115.000000 97.000000 45 46 48
102.000000 115.000000 98.000000 28 30 33
102.000000 115.000000 99.000000 34 36 38
102.000000 115.000000 100.000000 18 19 18
102.000000 115.000000 101.000000 15 16 15
102.000000 116.000000 89.000000 85 84 99
102.000000 116.000000 90.000000 71 71 80
102.000000 116.000000 91.000000 82 86 89
102.000000 116.000000 92.000000 55 60 66
102.000000 116.000000 93.000000 55 59 67
102.000000 116.000000 94.000000 37 42 47
102.000000 116.000000 95.000000 49 51 57
102.000000 116.000000 96.000000 41 43 47
102.000000 116.000000 97.000000 52 52 57
102.000000 116.000000 98.000000 22 22 25
102.000000 116.000000 99.000000 21 21 23
102.000000 116.000000 100.000000 10 11 12
102.000000 116.000000 101.000000 4 4 4
102.000000 117.000000 87.000000 94 101 110
102.000000 117.000000 88.000000 55 64 82
102.000000 117.000000 89.000000 83 89 104
102.000000 117.000000 90.000000 69 71 85
102.000000 117.000000 91.000000 63 64 75
102.000000 117.000000 92.000000 46 48 55
102.000000 117.000000 93.000000 38 42 48
102.000000 117.000000 94.000000 44 47 52
102.000000 117.000000 95.000000 27 29 32
102.000000 117.000000 96.000000 25 27 29
102.000000 117.000000 97.000000 22 23 25
102.000000 117.000000 98.000000 18 19 20
102.000000 117.000000 99.000000 11 12 12
102.000000 117.000000 100.000000 1 1 1
102.000000 118.000000 84.000000 117 129 142
102.000000 118.000000 86.000000 73 71 92
102.000000 118.000000 87.000000 78 85 93
102.000000 118.000000 88.000000 87 99 99
102.000000 118.000000 89.000000 54 61 73
102.000000 118.000000 90.000000 54 65 74
102.000000 118.000000 91.000000 37 44 50
102.000000 118.000000 92.000000 47 53 57
102.000000 118.000000 93.000000 48 50 55
102.000000 118.000000 94.000000 43 46 50
102.000000 118.000000 95.000000 18 20 24
102.000000 118.000000 96.000000 14 16 18
102.000000 118.000000 97.000000 15 16 18
102.000000 118.000000 98.000000 6 6 7
102.000000 119.000000 82.000000 93 101 122
102.000000 119.000000 83.000000 102 110 130
102.000000 119.000000 84.000000 75 84 94
102.000000 119.000000 85.000000 70 77 85
102.000000 119.000000 86.000000 82 82 94
102.000000 119.000000 87.000000 51 55 64
102.000000 119.000000 88.000000 49 59 65
102.000000 119.000000 89.000000 51 52 60
102.000000 119.000000 90.000000 44 48 51
102.000000 119.000000 91.000000 43 46 49
102.000000 119.000000 92.000000 40 41 43
102.000000 119.000000 93.000000 21 22 24
102.000000 119.000000 94.000000 11 11 13
102.000000 119.000000 95.000000 21 23 24
102.000000 119.000000 96.000000 4 4 5
102.000000 119.000000 97.000000 1 1 2
102.000000 120.000000 79.000000 98 107 123
102.000000 120.000000 80.000000 79 85 103
102.000000 120.000000 81.000000 95 106 122
102.000000 120.000000 82.000000 68 75 87
102.000000 120.000000 83.000000 51 57 73
102.000000 120.000000 84.000000 88 93 102
102.000000 120.000000 85.000000 63 70 77
102.000000 120.000000 86.000000 54 65 77
102.000000 120.000000 87.000000 40 42 46
102.000000 120.000000 88.000000 30 34 42
102.000000 120.000000 89.000000 25 29 34
102.000000 120.000000 90.000000 47 50 54
102.000000 120.000000 91.000000 28 31 33
102.000000 120.000000 92.000000 10 13 14
102.000000 120.000000 93.000000 14 16 17
102.000000 120.000000 94.000000 10 12 12
102.000000 120.000000 95.000000 0 0 0
102.000000 121.000000 77.000000 101 114 133
102.000000 121.000000 78.000000 78 88 108
102.000000 121.000000 79.000000 96 102 114
102.000000 121.000000 80.000000 81 85 100
102.000000 121.000000 81.000000 49 55 69
102.000000 121.000000 82.000000 76 83 91
102.000000 121.000000 83.000000 59 65 77
102.000000 121.000000 84.000000 54 59 66
102.000000 121.000000 85.000000 40 45 49
102.000000 121.000000 86.000000 26 31 37
102.000000 121.000000 87.000000 43 47 48
102.000000 121.000000 88.000000 42 44 49
102.000000 121.000000 89.000000 33 35 38
102.000000 121.000000 90.000000 11 12 15
102.000000 121.000000 91.000000 16 18 21
102.000000 121.000000 92.000000 11 12 13
102.000000 122.000000 74.000000 109 120 141
102.000000 122.000000 75.000000 95 101 120
102.000000 122.000000 76.000000 83 91 99
102.000000 122.000000 77.000000 75 85 101
102.000000 122.000000 78.000000 76 83 95
102.000000 122.000000 79.000000 69 74 84
102.000000 122.000000 80.000000 52 56 63
102.000000 122.000000 81.000000 76 79 87
102.000000 122.000000 82.000000 49 56 63
102.000000 122.000000 83.000000 56 61 69
102.000000 122.000000 84.000000 35 39 44
102.000000 122.000000 85.000000 41 45 48
102.000000 122.000000 86.000000 26 28 33
102.000000 122.000000 87.000000 34 38 38
102.000000 122.000000 88.000000 16 19 21
102.000000 122.000000 89.000000 9 10 11
102.000000 122.000000 90.000000 4 4 4
102.000000 122.000000 91.000000 0 0 0
102.000000 123.000000 72.000000 126 140 165
102.000000 123.000000 73.000000 86 100 117
102.000000 123.000000 74.000000 78 87 102
102.000000 123.000000 75.000000 64 73 87
102.000000 123.000000 76.000000 92 98 110
102.000000 123.000000 77.000000 62 66 79
102.000000 123.000000 78.000000 46 48 60
102.000000 123.000000 79.000000 70 74 85
102.000000 123.000000 80.000000 45 49 59
102.000000 123.000000 81.000000 48 52 61
102.000000 123.000000 82.000000 37 43 49
102.000000 123.000000 83.000000 21 27 33
102.000000 123.000000 84.000000 24 29 32
102.000000 123.000000 85.000000 33 40 43
102.000000 123.000000 86.000000 19 20 24
102.000000 123.000000 87.000000 5 6 8
102.000000 123.000000 88.000000 14 17 18
102.000000 123.000000 89.000000 6 7 8
102.000000 124.000000 70.000000 127 144 155
102.000000 124.000000 71.000000 61 82 88
102.000000 124.000000 72.000000 88 95 107
102.000000 124.000000 73.000000 105 117 129
102.000000 124.000000 74.000000 68 85 93
102.000000 124.000000 75.000000 67 67 89
102.000000 124.000000 76.000000 49 53 67
102.000000 124.000000 77.000000 59 58 67
102.000000 124.000000 78.000000 42 44 53
102.000000 124.000000 79.000000 39 42 47
102.000000 124.000000 80.000000 40 43 52
102.000000 124.000000 81.000000 17 19 24
102.000000 124.000000 82.000000 31 33 39
102.000000 124.000000 83.000000 29 33 38
102.000000 124.000000 84.000000 16 19 21
102.000000 124.000000 85.000000 6 7 8
102.000000 124.000000 86.000000 5 6 7
102.000000 125.000000 69.000000 85 97 111
102.000000 125.000000 70.000000 56 58 73
102.000000 125.000000 71.000000 86 106 113
102.000000 125.000000 72.000000 71 84 88
102.000000 125.000000 73.000000 84 97 105
102.000000 125.000000 74.000000 57 68 82
102.000000 125.000000 75.000000 34 35 45
102.000000 125.000000 76.000000 43 48 53
102.000000 125.000000 77.000000 41 46 53
102.000000 125.000000 78.000000 41 45 52
102.000000 125.000000 79.000000 19 22 25
102.000000 125.000000 80.000000 23 27 29
102.000000 125.000000 81.000000 23 25 28
102.000000 125.000000 82.000000 15 17 18
102.000000 125.000000 83.000000 7 8 9
102.000000 125.000000 84.000000 2 2 3
102.000000 126.000000 66.000000 120 134 151
102.000000 126.000000 67.000000 122 138 149
102.000000 126.000000 68.000000 60 74 87
102.000000 126.000000 69.000000 97 109 122
102.000000 126.000000 70.000000 103 115 126
102.000000 126.000000 71.000000 57 67 80
102.000000 126.000000 72.000000 71 81 91
102.000000 126.000000 73.000000 48 52 61
102.000000 126.000000 74.000000 42 44 48
102.000000 126.000000 75.000000 44 50 55
102.000000 126.000000 76.000000 25 29 34
102.000000 126.000000 77.000000 31 33 35
102.000000 126.000000 78.000000 30 32 34
102.000000 126.000000 79.000000 12 14 16
102.000000 126.000000 80.000000 12 13 15
102.000000 126.000000 81.000000 11 13 14
102.000000 126.000000 82.000000 3 4 5
102.000000 126.000000 83.000000 1 1 2
102.000000 127.000000 65.000000 141 153 166
102.000000 127.000000 66.000000 50 60 74
102.000000 127.000000 67.000000 95 104 116
102.000000 127.000000 68.000000 103 113 122
102.000000 127.000000 69.000000 70 75 88
102.000000 127.000000 70.000000 66 73 84
102.000000 127.000000 71.000000 54 62 66
102.000000 127.000000 72.000000 25 31 38
102.000000 127.000000 73.000000 46 51 59
102.000000 127.000000 74.000000 33 37 41
102.000000 127.000000 75.000000 22 24 31
102.000000 127.000000 76.000000 31 33 38
102.000000 127.000000 77.000000 14 15 18
102.000000 127.000000 78.000000 8 9 10
102.000000 127.000000 79.000000 11 11 13
102.000000 127.000000 80.000000 5 6 7
102.000000 128.000000 65.000000 69 80 91
102.000000 128.000000 66.000000 95 102 110
102.000000 128.000000 67.000000 64 67 80
102.000000 128.000000 68.000000 64 69 79
102.000000 128.000000 69.000000 60 69 77
102.000000 128.000000 70.000000 31 35 43
102.000000 128.000000 71.000000 46 50 57
102.000000 128.000000 72.000000 51 56 60
102.000000 128.000000 73.000000 27 31 36
102.000000 128.000000 74.000000 30 33 36
102.000000 128.000000 75.000000 17 20 22
102.000000 128.000000 76.000000 6 6 8
102.000000 128.000000 77.000000 5 5 6
102.000000 129.000000 65.000000 75 81 97
102.000000 129.000000 66.000000 65 73 82
102.000000 129.000000 67.000000 60 64 75
102.000000 129.000000 68.000000 44 51 59
102.000000 129.000000 69.000000 44 48 56
102.000000 129.000000 70.000000 49 54 58
102.000000 129.000000 71.000000 27 31 38
102.000000 129.000000 72.000000 29 32 36
102.000000 129.000000 73.000000 20 22 24
102.000000 129.000000 74.000000 7 7 9
102.000000 129.000000 75.000000 5 5 6
102.000000 129.000000 76.000000 3 3 4
102.000000 130.000000 66.000000 46 49 58
102.000000 130.000000 67.000000 34 36 42
102.000000 130.000000 68.000000 52 57 64
102.000000 130.000000 69.000000 29 35 43
102.000000 130.000000 70.000000 26 29 35
102.000000 130.000000 71.000000 23 26 29
102.000000 130.000000 72.000000 8 9 11
102.000000 130.000000 73.000000 4 5 6
102.000000 130.000000 74.000000 0 0 0
102.000000 131.000000 66.000000 37 40 44
102.000000 131.000000 67.000000 38 39 44
102.000000 131.000000 68.000000 23 24 28
102.000000 131.000000 69.000000 27 30 32
102.000000 131.000000 70.000000 20 23 26
102.000000 131.000000 71.000000 9 10 13
102.000000 131.000000 72.000000 8 8 9
102.000000 132.000000 66.000000 13 13 17
102.000000 132.000000 67.000000 28 30 34
102.000000 132.000000 68.000000 15 16 19
102.000000 132.000000 69.000000 4 5 5
102.000000 132.000000 70.000000 10 11 13
102.000000 132.000000 71.000000 2 3 3
102.000000 133.000000 67.000000 11 12 14
102.000000 133.000000 68.000000 10 11 13
102.000000 133.000000 69.000000 2 2 2
103.000000 28.000000 153.000000 21 23 23
103.000000 28.000000 154.000000 6 6 6
103.000000 29.000000 151.000000 51 56 56
103.000000 29.000000 152.000000 36 39 39
103.000000 29.000000 153.000000 20 22 23
103.000000 29.000000 154.000000 5 5 6
103.000000 30.000000 148.000000 97 106 106
103.000000 30.000000 149.000000 59 64 65
103.000000 30.000000 150.000000 47 51 52
103.000000 30.000000 151.000000 29 32 33
103.000000 30.000000 152.000000 12 14 14
103.000000 30.000000 154.000000 4 4 4
103.000000 31.000000 146.000000 125 136 136
103.000000 31.000000 147.000000 111 120 122
103.000000 31.000000 148.000000 76 83 84
103.000000 31.000000 149.000000 35 39 41
103.000000 31.000000 150.000000 20 23 23
103.000000 31.000000 151.000000 28 31 32
103.000000 31.000000 154.000000 3 4 4
103.000000 32.000000 144.000000 140 153 153
103.000000 32.000000 145.000000 147 161 161
103.000000 32.000000 146.000000 128 139 143
103.000000 32.000000 147.000000 117 127 130
103.000000 32.000000 154.000000 3 3 3
103.000000 33.000000 146.000000 125 139 144
103.000000 33.000000 147.000000 111 123 128
103.000000 35.000000 156.000000 17 18 18
103.000000 37.000000 135.000000 215 216 220
103.000000 37.000000 139.000000 197 207 208
103.000000 37.000000 140.000000 151 162 162
103.000000 37.000000 141.000000 153 166 166
103.000000 37.000000 142.000000 133 151 151
103.000000 37.000000 143.000000 102 117 112
103.000000 37.000000 144.000000 117 131 126
103.000000 38.000000 141.000000 161 173 181
103.000000 39.000000 142.000000 122 141 139
103.000000 39.000000 144.000000 98 117 103
103.000000 39.000000 145.000000 116 127 113
103.000000 39.000000 147.000000 71 69 69
103.000000 40.000000 142.000000 94 122 104
103.000000 40.000000 143.000000 103 120 92
103.000000 40.000000 144.000000 102 112 83
103.000000 40.000000 145.000000 75 75 79
103.000000 40.000000 146.000000 90 88 106
103.000000 40.000000 148.000000 105 117 133
103.000000 41.000000 142.000000 156 169 147
103.000000 51.000000 126.000000 109 116 120
103.000000 51.000000 127.000000 83 84 91
103.000000 51.000000 128.000000 67 64 68
103.000000 51.000000 129.000000 41 40 46
103.000000 51.000000 130.000000 23 21 23
103.000000 51.000000 131.000000 1 1 1
103.000000 52.000000 124.000000 126 133 152
103.000000 52.000000 125.000000 108 132 145
103.000000 52.000000 126.000000 105 116 113
103.000000 52.000000 127.000000 101 103 105
103.000000 52.000000 128.000000 84 81 84
103.000000 52.000000 129.000000 69 67 69
103.000000 52.000000 130.000000 43 44 45
103.000000 52.000000 131.000000 20 20 21
103.000000 52.000000 132.000000 1 1 2
103.000000 53.000000 121.000000 160 167 185
103.000000 53.000000 122.000000 165 161 175
103.000000 53.000000 123.000000 200 195 214
103.000000 53.000000 124.000000 177 170 190
103.000000 53.000000 125.000000 182 186 183
103.000000 53.000000 126.000000 157 158 156
103.000000 53.000000 127.000000 102 94 100
103.000000 53.000000 128.000000 54 58 62
103.000000 53.000000 129.000000 39 37 39
103.000000 53.000000 130.000000 22 24 28
103.000000 53.000000 131.000000 6 7 8
103.000000 53.000000 132.000000 0 0 0
103.000000 54.000000 123.000000 193 191 202
103.000000 54.000000 124.000000 151 145 155
103.000000 54.000000 125.000000 93 94 117
103.000000 54.000000 126.000000 74 79 88
103.000000 54.000000 127.000000 36 34 41
103.000000 54.000000 128.000000 26 18 32
103.000000 54.000000 129.000000 19 13 20
103.000000 54.000000 130.000000 9 7 9
103.000000 54.000000 131.000000 4 3 4
103.000000 54.000000 132.000000 5 4 5
103.000000 54.000000 133.000000 1 0 0
103.000000 55.000000 123.000000 86 83 102
103.000000 55.000000 124.000000 47 34 54
103.000000 55.000000 125.000000 46 36 43
103.000000 55.000000 126.000000 31 25 34
103.000000 55.000000 127.000000 27 21 28
103.000000 55.000000 128.000000 28 21 25
103.000000 55.000000 129.000000 19 10 13
103.000000 55.000000 130.000000 21 10 13
103.000000 55.000000 131.000000 11 5 6
103.000000 55.000000 132.000000 7 2 3
103.000000 55.000000 133.000000 1 0 0
103.000000 56.000000 124.000000 47 32 43
103.000000 56.000000 125.000000 43 28 33
103.000000 56.000000 126.000000 42 20 19
103.000000 56.000000 127.000000 39 18 16
103.000000 56.000000 128.000000 41 14 16
103.000000 56.000000 129.000000 39 14 18
103.000000 56.000000 130.000000 31 10 14
103.000000 56.000000 131.000000 25 8 11
103.000000 56.000000 132.000000 19 6 7
103.000000 56.000000 133.000000 11 3 4
103.000000 56.000000 134.000000 3 0 1
103.000000 57.000000 124.000000 62 25 22
103.000000 57.000000 125.000000 63 19 20
103.000000 57.000000 126.000000 61 18 21
103.000000 57.000000 127.000000 57 17 24
103.000000 57.000000 128.000000 55 17 24
103.000000 57.000000 129.000000 45 14 19
103.000000 57.000000 130.000000 36 11 14
103.000000 57.000000 131.000000 28 8 10
103.000000 57.000000 132.000000 22 6 5
103.000000 57.000000 133.000000 12 3 3
103.000000 57.000000 134.000000 2 0 0
103.000000 58.000000 124.000000 89 26 30
103.000000 58.000000 125.000000 84 23 30
103.000000 58.000000 126.000000 74 20 24
103.000000 58.000000 127.000000 64 19 21
103.000000 58.000000 128.000000 57 17 17
103.000000 58.000000 129.000000 49 14 14
103.000000 58.000000 130.000000 39 10 9
103.000000 58.000000 131.000000 29 7 6
103.000000 58.000000 132.000000 21 4 4
103.000000 58.000000 133.000000 11 2 3
103.000000 58.000000 134.000000 2 0 0
103.000000 59.000000 125.000000 101 29 26
103.000000 59.000000 126.000000 88 24 27
103.000000 59.000000 127.000000 79 20 23
103.000000 59.000000 128.000000 71 18 18
103.000000 59.000000 129.000000 61 16 15
103.000000 59.000000 130.000000 51 13 10
103.000000 59.000000 131.000000 42 10 8
103.000000 59.000000 132.000000 22 5 7
103.000000 59.000000 133.000000 11 2 3
103.000000 59.000000 134.000000 13 3 4
103.000000 60.000000 125.000000 104 27 33
103.000000 60.000000 126.000000 91 21 23
103.000000 60.000000 127.000000 85 22 21
103.000000 60.000000 128.000000 86 21 20
103.000000 60.000000 129.000000 64 16 15
103.000000 60.000000 130.000000 66 16 16
103.000000 60.000000 131.000000 54 12 13
103.000000 60.000000 132.000000 46 12 14
103.000000 60.000000 133.000000 23 6 7
103.000000 60.000000 134.000000 13 3 3
103.000000 60.000000 135.000000 3 0 0
103.000000 61.000000 126.000000 104 19 22
103.000000 61.000000 128.000000 98 23 24
103.000000 61.000000 129.000000 73 17 19
103.000000 61.000000 130.000000 67 18 21
103.000000 61.000000 131.000000 54 15 17
103.000000 61.000000 132.000000 42 10 11
103.000000 61.000000 133.000000 34 9 9
103.000000 61.000000 134.000000 13 3 4
103.000000 61.000000 135.000000 2 0 0
103.000000 62.000000 128.000000 85 20 24
103.000000 62.000000 129.000000 77 19 24
103.000000 62.000000 130.000000 66 16 18
103.000000 62.000000 131.000000 58 16 18
103.000000 62.000000 132.000000 45 11 13
103.000000 62.000000 133.000000 33 7 8
103.000000 62.000000 134.000000 25 6 7
103.000000 62.000000 135.000000 15 4 5
103.000000 62.000000 136.000000 4 1 1
103.000000 63.000000 127.000000 95 21 28
103.000000 63.000000 128.000000 100 24 31
103.000000 63.000000 129.000000 90 21 26
103.000000 63.000000 130.000000 80 17 23
103.000000 63.000000 131.000000 69 16 19
103.000000 63.000000 132.000000 58 12 16
103.000000 63.000000 133.000000 44 8 11
103.000000 63.000000 134.000000 35 7 9
103.000000 63.000000 135.000000 26 7 8
103.000000 63.000000 136.000000 17 4 4
103.000000 64.000000 129.000000 102 21 28
103.000000 64.000000 130.000000 94 20 25
103.000000 64.000000 131.000000 84 20 26
103.000000 64.000000 132.000000 71 15 21
103.000000 64.000000 133.000000 57 13 17
103.000000 64.000000 134.000000 47 13 15
103.000000 64.000000 135.000000 38 12 13
103.000000 64.000000 136.000000 16 3 4
103.000000 64.000000 137.000000 6 1 1
103.000000 65.000000 129.000000 103 18 25
103.000000 65.000000 130.000000 92 16 22
103.000000 65.000000 131.000000 82 18 22
103.000000 65.000000 132.000000 69 17 16
103.000000 65.000000 133.000000 57 13 11
103.000000 65.000000 134.000000 47 11 10
103.000000 65.000000 135.000000 38 10 9
103.000000 65.000000 136.000000 30 7 7
103.000000 65.000000 137.000000 18 4 5
103.000000 65.000000 138.000000 8 2 2
103.000000 66.000000 129.000000 103 20 28
103.000000 66.000000 130.000000 94 22 27
103.000000 66.000000 131.000000 84 22 27
103.000000 66.000000 132.000000 74 19 23
103.000000 67.000000 139.000000 10 3 3
103.000000 68.000000 139.000000 10 3 2
103.000000 70.000000 140.000000 12 4 3
103.000000 70.000000 141.000000 1 0 0
103.000000 112.000000 97.000000 62 60 63
103.000000 112.000000 98.000000 76 72 77
103.000000 112.000000 99.000000 85 81 87
103.000000 113.000000 95.000000 69 72 80
103.000000 113.000000 96.000000 51 52 53
103.000000 113.000000 97.000000 71 71 71
103.000000 113.000000 98.000000 60 60 60
103.000000 113.000000 99.000000 34 33 36
103.000000 114.000000 94.000000 55 55 62
103.000000 114.000000 95.000000 85 87 93
103.000000 114.000000 96.000000 59 61 66
103.000000 114.000000 97.000000 35 38 40
103.000000 114.000000 98.000000 40 41 40
103.000000 114.000000 99.000000 41 41 41
103.000000 115.000000 90.000000 98 101 108
103.000000 115.000000 91.000000 75 78 92
103.000000 115.000000 92.000000 76 79 93
103.000000 115.000000 93.000000 56 58 70
103.000000 115.000000 94.000000 48 50 61
103.000000 115.000000 95.000000 60 61 70
103.000000 115.000000 96.000000 42 42 48
103.000000 115.000000 97.000000 38 37 42
103.000000 115.000000 98.000000 36 38 40
103.000000 115.000000 99.000000 22 23 23
103.000000 115.000000 100.000000 22 23 21
103.000000 116.000000 89.000000 102 104 116
103.000000 116.000000 90.000000 73 79 86
103.000000 116.000000 91.000000 77 84 92
103.000000 116.000000 92.000000 51 56 63
103.000000 116.000000 93.000000 56 60 65
103.000000 116.000000 94.000000 61 64 70
103.000000 116.000000 95.000000 66 69 73
103.000000 116.000000 96.000000 37 39 42
103.000000 116.000000 97.000000 31 32 33
103.000000 116.000000 98.000000 31 32 33
103.000000 116.000000 99.000000 13 13 14
103.000000 116.000000 100.000000 3 3 4
103.000000 117.000000 87.000000 95 110 125
103.000000 117.000000 88.000000 77 87 103
103.000000 117.000000 89.000000 82 87 103
103.000000 117.000000 90.000000 58 59 73
103.000000 117.000000 91.000000 69 70 78
103.000000 117.000000 92.000000 73 75 83
103.000000 117.000000 93.000000 59 64 70
103.000000 117.000000 94.000000 44 49 53
103.000000 117.000000 95.000000 28 31 34
103.000000 117.000000 96.000000 34 36 38
103.000000 117.000000 97.000000 25 27 28
103.000000 117.000000 98.000000 15 16 16
103.000000 117.000000 99.000000 5 5 6
103.000000 118.000000 85.000000 111 112 132
103.000000 118.000000 86.000000 73 88 95
103.000000 118.000000 87.000000 83 91 98
103.000000 118.000000 88.000000 62 66 76
103.000000 118.000000 89.000000 57 62 70
103.000000 118.000000 90.000000 63 68 73
103.000000 118.000000 91.000000 63 69 74
103.000000 118.000000 92.000000 45 50 54
103.000000 118.000000 93.000000 29 36 38
103.000000 118.000000 94.000000 35 37 41
103.000000 118.000000 95.000000 29 29 35
103.000000 118.000000 96.000000 23 24 26
103.000000 118.000000 97.000000 7 7 9
103.000000 118.000000 98.000000 1 2 2
103.000000 119.000000 81.000000 89 93 120
103.000000 119.000000 83.000000 101 109 122
103.000000 119.000000 84.000000 72 88 105
103.000000 119.000000 85.000000 78 83 97
103.000000 119.000000 86.000000 60 65 75
103.000000 119.000000 87.000000 41 50 60
103.000000 119.000000 88.000000 80 82 89
103.000000 119.000000 89.000000 62 70 72
103.000000 119.000000 90.000000 58 64 65
103.000000 119.000000 91.000000 30 35 38
103.000000 119.000000 92.000000 27 30 32
103.000000 119.000000 93.000000 26 27 30
103.000000 119.000000 94.000000 23 24 28
103.000000 119.000000 95.000000 7 8 9
103.000000 119.000000 96.000000 11 11 13
103.000000 119.000000 97.000000 4 3 4
103.000000 119.000000 98.000000 1 1 1
103.000000 120.000000 78.000000 116 121 140
103.000000 120.000000 79.000000 103 109 130
103.000000 120.000000 80.000000 77 88 109
103.000000 120.000000 81.000000 74 82 96
103.000000 120.000000 82.000000 90 96 114
103.000000 120.000000 83.000000 60 68 74
103.000000 120.000000 84.000000 74 81 89
103.000000 120.000000 85.000000 56 62 75
103.000000 120.000000 86.000000 66 71 77
103.000000 120.000000 87.000000 57 61 71
103.000000 120.000000 88.000000 50 57 60
103.000000 120.000000 89.000000 38 38 48
103.000000 120.000000 90.000000 32 33 39
103.000000 120.000000 91.000000 25 28 30
103.000000 120.000000 92.000000 20 23 24
103.000000 120.000000 93.000000 23 27 28
103.000000 120.000000 94.000000 9 10 12
103.000000 120.000000 95.000000 2 3 3
103.000000 121.000000 76.000000 86 98 114
103.000000 121.000000 77.000000 115 127 136
103.000000 121.000000 78.000000 84 90 99
103.000000 121.000000 79.000000 63 66 78
103.000000 121.000000 80.000000 93 100 112
103.000000 121.000000 81.000000 72 79 87
103.000000 121.000000 82.000000 77 83 98
103.000000 121.000000 83.000000 49 56 62
103.000000 121.000000 84.000000 51 56 64
103.000000 121.000000 85.000000 58 64 68
103.000000 121.000000 86.000000 54 60 64
103.000000 121.000000 87.000000 46 50 53
103.000000 121.000000 88.000000 28 31 33
103.000000 121.000000 89.000000 28 29 32
103.000000 121.000000 90.000000 23 25 28
103.000000 121.000000 91.000000 19 21 24
103.000000 121.000000 92.000000 4 5 6
103.000000 122.000000 74.000000 80 91 113
103.000000 122.000000 75.000000 120 130 139
103.000000 122.000000 76.000000 80 84 105
103.000000 122.000000 77.000000 73 76 89
103.000000 122.000000 78.000000 82 87 99
103.000000 122.000000 79.000000 72 78 88
103.000000 122.000000 80.000000 62 71 79
103.000000 122.000000 81.000000 56 65 73
103.000000 122.000000 82.000000 34 41 49
103.000000 122.000000 83.000000 60 66 71
103.000000 122.000000 84.000000 52 56 61
103.000000 122.000000 85.000000 33 37 44
103.000000 122.000000 86.000000 28 33 40
103.000000 122.000000 87.000000 31 35 38
103.000000 122.000000 88.000000 28 31 33
103.000000 122.000000 89.000000 12 13 15
103.000000 122.000000 90.000000 6 6 8
103.000000 122.000000 91.000000 3 3 3
103.000000 123.000000 71.000000 88 101 118
103.000000 123.000000 73.000000 88 100 114
103.000000 123.000000 74.000000 88 95 114
103.000000 123.000000 75.000000 80 82 96
103.000000 123.000000 76.000000 71 72 87
103.000000 123.000000 77.000000 92 94 104
103.000000 123.000000 78.000000 55 62 75
103.000000 123.000000 79.000000 51 57 68
103.000000 123.000000 80.000000 36 40 52
103.000000 123.000000 81.000000 60 63 74
103.000000 123.000000 82.000000 43 52 59
103.000000 123.000000 83.000000 41 48 52
103.000000 123.000000 84.000000 22 27 32
103.000000 123.000000 85.000000 23 25 32
103.000000 123.000000 86.000000 17 20 21
103.000000 123.000000 87.000000 13 14 16
103.000000 123.000000 88.000000 8 9 9
103.000000 123.000000 89.000000 2 3 4
103.000000 124.000000 69.000000 61 75 88
103.000000 124.000000 70.000000 101 111 122
103.000000 124.000000 71.000000 123 135 144
103.000000 124.000000 72.000000 77 90 104
103.000000 124.000000 73.000000 79 88 106
103.000000 124.000000 74.000000 71 70 85
103.000000 124.000000 75.000000 83 94 104
103.000000 124.000000 76.000000 48 54 67
103.000000 124.000000 77.000000 54 59 68
103.000000 124.000000 78.000000 44 50 54
103.000000 124.000000 79.000000 41 43 51
103.000000 124.000000 80.000000 37 41 47
103.000000 124.000000 81.000000 40 44 49
103.000000 124.000000 82.000000 35 38 44
103.000000 124.000000 83.000000 14 17 21
103.000000 124.000000 84.000000 20 23 25
103.000000 124.000000 85.000000 8 9 9
103.000000 125.000000 67.000000 86 101 117
103.000000 125.000000 68.000000 109 120 137
103.000000 125.000000 69.000000 112 128 135
103.000000 125.000000 70.000000 81 95 108
103.000000 125.000000 71.000000 81 96 105
103.000000 125.000000 72.000000 74 80 89
103.000000 125.000000 73.000000 41 49 56
103.000000 125.000000 74.000000 63 67 77
103.000000 125.000000 75.000000 49 54 58
103.000000 125.000000 76.000000 48 53 57
103.000000 125.000000 77.000000 31 35 40
103.000000 125.000000 78.000000 42 45 49
103.000000 125.000000 79.000000 34 38 44
103.000000 125.000000 80.000000 33 37 40
103.000000 125.000000 81.000000 14 15 18
103.000000 125.000000 82.000000 18 21 23
103.000000 125.000000 83.000000 17 19 22
103.000000 125.000000 84.000000 7 8 9
103.000000 125.000000 85.000000 1 1 2
103.000000 126.000000 65.000000 102 117 136
103.000000 126.000000 66.000000 98 109 120
103.000000 126.000000 67.000000 121 134 146
103.000000 126.000000 68.000000 104 115 128
103.000000 126.000000 69.000000 80 90 99
103.000000 126.000000 70.000000 77 86 99
103.000000 126.000000 71.000000 38 47 61
103.000000 126.000000 72.000000 64 73 79
103.000000 126.000000 73.000000 53 57 66
103.000000 126.000000 74.000000 30 34 45
103.000000 126.000000 75.000000 47 52 60
103.000000 126.000000 76.000000 30 31 35
103.000000 126.000000 77.000000 21 24 27
103.000000 126.000000 78.000000 32 34 39
103.000000 126.000000 79.000000 11 13 17
103.000000 126.000000 80.000000 12 14 16
103.000000 126.000000 81.000000 10 11 11
103.000000 126.000000 82.000000 9 10 12
103.000000 127.000000 64.000000 87 98 110
103.000000 127.000000 65.000000 115 130 139
103.000000 127.000000 66.000000 129 139 153
103.000000 127.000000 67.000000 86 98 110
103.000000 127.000000 68.000000 74 83 95
103.000000 127.000000 69.000000 52 56 70
103.000000 127.000000 70.000000 61 69 75
103.000000 127.000000 71.000000 71 78 83
103.000000 127.000000 72.000000 35 41 46
103.000000 127.000000 73.000000 37 44 48
103.000000 127.000000 74.000000 30 32 38
103.000000 127.000000 75.000000 20 22 30
103.000000 127.000000 76.000000 28 31 32
103.000000 127.000000 77.000000 14 15 20
103.000000 127.000000 78.000000 12 13 16
103.000000 127.000000 79.000000 2 2 3
103.000000 128.000000 64.000000 108 119 130
103.000000 128.000000 65.000000 69 83 96
103.000000 128.000000 66.000000 88 93 106
103.000000 128.000000 67.000000 70 75 86
103.000000 128.000000 68.000000 40 47 54
103.000000 128.000000 69.000000 76 83 89
103.000000 128.000000 70.000000 43 49 58
103.000000 128.000000 71.000000 35 38 44
103.000000 128.000000 72.000000 37 40 45
103.000000 128.000000 73.000000 23 25 29
103.000000 128.000000 74.000000 29 32 35
103.000000 128.000000 75.000000 19 22 26
103.000000 128.000000 76.000000 13 14 18
103.000000 128.000000 77.000000 7 9 10
103.000000 128.000000 78.000000 2 2 3
103.000000 129.000000 65.000000 67 72 84
103.000000 129.000000 66.000000 43 49 59
103.000000 129.000000 67.000000 60 75 85
103.000000 129.000000 68.000000 50 57 68
103.000000 129.000000 69.000000 36 43 52
103.000000 129.000000 70.000000 56 59 67
103.000000 129.000000 71.000000 26 30 35
103.000000 129.000000 72.000000 15 18 21
103.000000 129.000000 73.000000 21 23 24
103.000000 129.000000 74.000000 11 12 15
103.000000 129.000000 75.000000 6 8 8
103.000000 129.000000 76.000000 6 7 8
103.000000 130.000000 65.000000 46 50 57
103.000000 130.000000 66.000000 69 71 77
103.000000 130.000000 67.000000 34 36 41
103.000000 130.000000 68.000000 42 47 51
103.000000 130.000000 69.000000 32 35 42
103.000000 130.000000 70.000000 17 19 25
103.000000 130.000000 71.000000 23 25 28
103.000000 130.000000 72.000000 12 14 16
103.000000 130.000000 73.000000 5 6 6
103.000000 131.000000 65.000000 35 38 45
103.000000 131.000000 66.000000 33 37 44
103.000000 131.000000 67.000000 42 44 49
103.000000 131.000000 68.000000 20 22 24
103.000000 131.000000 69.000000 21 24 27
103.000000 131.000000 70.000000 15 17 20
103.000000 131.000000 71.000000 14 15 16
103.000000 131.000000 72.000000 4 5 6
103.000000 131.000000 73.000000 0 0 0
103.000000 132.000000 65.000000 34 35 38
103.000000 132.000000 66.000000 26 27 32
103.000000 132.000000 67.000000 22 24 27
103.000000 132.000000 68.000000 14 16 19
103.000000 132.000000 69.000000 10 11 13
103.000000 132.000000 70.000000 2 2 3
103.000000 132.000000 71.000000 2 2 3
103.000000 133.000000 66.000000 19 19 21
103.000000 133.000000 67.000000 14 14 17
103.000000 133.000000 68.000000 8 9 10
103.000000 133.000000 69.000000 4 5 5
103.000000 134.000000 66.000000 9 9 11
104.000000 28.000000 153.000000 26 27 28
104.000000 28.000000 154.000000 10 10 11
104.000000 29.000000 150.000000 72 78 79
104.000000 29.000000 151.000000 57 62 62
104.000000 29.000000 152.000000 40 42 43
104.000000 29.000000 153.000000 25 26 26
104.000000 30.000000 148.000000 105 115 115
104.000000 30.000000 149.000000 86 95 95
104.000000 30.000000 150.000000 70 77 77
104.000000 30.000000 151.000000 58 63 64
104.000000 30.000000 152.000000 42 44 45
104.000000 30.000000 153.000000 2 2 2
104.000000 31.000000 146.000000 133 144 145
104.000000 31.000000 147.000000 95 104 105
104.000000 31.000000 148.000000 86 95 97
104.000000 31.000000 149.000000 66 73 75
104.000000 31.000000 150.000000 46 51 52
104.000000 31.000000 151.000000 30 34 35
104.000000 31.000000 152.000000 38 41 43
104.000000 31.000000 153.000000 1 1 1
104.000000 31.000000 154.000000 8 9 9
104.000000 32.000000 144.000000 162 176 176
104.000000 32.000000 145.000000 128 140 142
104.000000 32.000000 146.000000 89 98 100
104.000000 32.000000 147.000000 70 78 81
104.000000 32.000000 150.000000 47 52 53
104.000000 32.000000 151.000000 54 59 61
104.000000 32.000000 152.000000 40 44 45
104.000000 32.000000 153.000000 24 26 27
104.000000 32.000000 154.000000 8 8 8
104.000000 32.000000 155.000000 17 18 18
104.000000 32.000000 156.000000 0 1 1
104.000000 33.000000 144.000000 162 177 182
104.000000 33.000000 145.000000 103 112 116
104.000000 33.000000 151.000000 54 58 58
104.000000 33.000000 154.000000 7 7 8
104.000000 33.000000 155.000000 15 16 17
104.000000 33.000000 156.000000 0 0 0
104.000000 34.000000 154.000000 6 7 7
104.000000 35.000000 153.000000 43 48 49
104.000000 35.000000 154.000000 27 31 31
104.000000 35.000000 155.000000 14 16 16
104.000000 36.000000 153.000000 67 74 74
104.000000 36.000000 154.000000 5 5 5
104.000000 36.000000 155.000000 13 15 14
104.000000 37.000000 154.000000 4 4 5
104.000000 38.000000 154.000000 4 4 4
104.000000 39.000000 156.000000 19 20 21
104.000000 40.000000 144.000000 115 112 111
104.000000 51.000000 125.000000 126 128 128
104.000000 51.000000 126.000000 120 118 126
104.000000 51.000000 128.000000 62 64 75
104.000000 51.000000 129.000000 53 51 56
104.000000 51.000000 130.000000 31 31 31
104.000000 51.000000 131.000000 8 8 8
104.000000 52.000000 123.000000 167 178 199
104.000000 52.000000 124.000000 118 129 140
104.000000 52.000000 125.000000 140 135 129
104.000000 52.000000 126.000000 136 130 137
104.000000 52.000000 127.000000 93 87 93
104.000000 52.000000 128.000000 68 69 70
104.000000 52.000000 129.000000 52 55 54
104.000000 52.000000 130.000000 30 30 29
104.000000 52.000000 131.000000 6 6 6
104.000000 53.000000 121.000000 213 212 227
104.000000 53.000000 122.000000 167 187 214
104.000000 53.000000 123.000000 147 164 176
104.000000 53.000000 124.000000 162 162 154
104.000000 53.000000 125.000000 187 185 186
104.000000 53.000000 126.000000 135 132 137
104.000000 53.000000 127.000000 102 104 109
104.000000 53.000000 128.000000 54 58 63
104.000000 53.000000 129.000000 31 37 45
104.000000 53.000000 130.000000 21 22 23
104.000000 53.000000 131.000000 11 9 9
104.000000 53.000000 132.000000 1 1 2
104.000000 54.000000 124.000000 146 132 141
104.000000 54.000000 125.000000 97 106 103
104.000000 54.000000 126.000000 111 101 100
104.000000 54.000000 127.000000 30 24 39
104.000000 54.000000 128.000000 19 17 26
104.000000 54.000000 129.000000 15 14 17
104.000000 54.000000 130.000000 9 8 10
104.000000 54.000000 131.000000 6 5 6
104.000000 54.000000 132.000000 1 1 1
104.000000 55.000000 123.000000 60 50 87
104.000000 55.000000 124.000000 45 36 58
104.000000 55.000000 125.000000 26 27 41
104.000000 55.000000 126.000000 31 26 38
104.000000 55.000000 127.000000 30 22 27
104.000000 55.000000 128.000000 25 17 22
104.000000 55.000000 129.000000 22 13 16
104.000000 55.000000 130.000000 18 9 12
104.000000 55.000000 131.000000 7 3 4
104.000000 55.000000 132.000000 1 0 0
104.000000 55.000000 133.000000 3 1 1
104.000000 56.000000 125.000000 43 28 31
104.000000 56.000000 126.000000 47 22 22
104.000000 56.000000 127.000000 41 18 21
104.000000 56.000000 128.000000 38 15 19
104.000000 56.000000 129.000000 31 11 13
104.000000 56.000000 130.000000 25 8 11
104.000000 56.000000 131.000000 19 6 7
104.000000 56.000000 132.000000 13 3 4
104.000000 56.000000 133.000000 4 1 1
104.000000 57.000000 125.000000 64 22 25
104.000000 57.000000 126.000000 68 22 29
104.000000 57.000000 127.000000 57 15 24
104.000000 57.000000 128.000000 52 16 21
104.000000 57.000000 129.000000 47 14 17
104.000000 57.000000 130.000000 42 13 16
104.000000 57.000000 131.000000 34 10 11
104.000000 57.000000 132.000000 25 7 5
104.000000 57.000000 133.000000 16 4 3
104.000000 57.000000 134.000000 6 1 1
104.000000 58.000000 125.000000 86 25 33
104.000000 58.000000 126.000000 78 25 32
104.000000 58.000000 127.000000 68 22 25
104.000000 58.000000 128.000000 59 16 14
104.000000 58.000000 129.000000 51 12 9
104.000000 58.000000 130.000000 44 11 9
104.000000 58.000000 131.000000 34 9 7
104.000000 58.000000 132.000000 25 6 5
104.000000 58.000000 133.000000 15 4 4
104.000000 58.000000 134.000000 5 1 1
104.000000 59.000000 124.000000 96 28 27
104.000000 59.000000 126.000000 83 26 25
104.000000 59.000000 127.000000 74 21 20
104.000000 59.000000 128.000000 61 15 12
104.000000 59.000000 129.000000 53 12 11
104.000000 59.000000 130.000000 44 11 13
104.000000 59.000000 131.000000 35 9 10
104.000000 59.000000 132.000000 25 5 7
104.000000 59.000000 133.000000 15 4 4
104.000000 59.000000 134.000000 5 1 1
104.000000 60.000000 126.000000 93 22 20
104.000000 60.000000 127.000000 84 19 16
104.000000 60.000000 128.000000 73 16 13
104.000000 60.000000 129.000000 62 12 11
104.000000 60.000000 130.000000 55 12 13
104.000000 60.000000 131.000000 47 11 14
104.000000 60.000000 132.000000 37 10 11
104.000000 60.000000 133.000000 15 4 4
104.000000 60.000000 134.000000 5 1 1
104.000000 61.000000 127.000000 99 25 27
104.000000 61.000000 128.000000 90 24 26
104.000000 61.000000 129.000000 77 18 22
104.000000 61.000000 130.000000 52 11 14
104.000000 61.000000 131.000000 45 10 13
104.000000 61.000000 132.000000 36 9 11
104.000000 61.000000 133.000000 27 7 8
104.000000 61.000000 134.000000 16 4 5
104.000000 61.000000 135.000000 6 1 1
104.000000 62.000000 127.000000 101 27 32
104.000000 62.000000 128.000000 92 25 30
104.000000 62.000000 129.000000 79 21 21
104.000000 62.000000 130.000000 65 16 16
104.000000 62.000000 131.000000 58 14 16
104.000000 62.000000 132.000000 50 13 16
104.000000 62.000000 133.000000 40 11 13
104.000000 62.000000 134.000000 28 7 7
104.000000 62.000000 135.000000 18 4 4
104.000000 62.000000 136.000000 8 2 2
104.000000 63.000000 127.000000 102 24 28
104.000000 63.000000 128.000000 105 25 30
104.000000 63.000000 129.000000 97 25 29
104.000000 63.000000 130.000000 70 17 20
104.000000 63.000000 131.000000 58 14 16
104.000000 63.000000 132.000000 61 15 18
104.000000 63.000000 133.000000 53 15 16
104.000000 63.000000 134.000000 29 8 8
104.000000 63.000000 135.000000 18 5 4
104.000000 63.000000 136.000000 8 2 1
104.000000 64.000000 128.000000 102 20 28
104.000000 64.000000 129.000000 107 23 30
104.000000 64.000000 130.000000 94 20 26
104.000000 64.000000 131.000000 80 17 23
104.000000 64.000000 132.000000 59 17 20
104.000000 64.000000 133.000000 50 15 17
104.000000 64.000000 134.000000 40 9 11
104.000000 64.000000 135.000000 31 7 9
104.000000 64.000000 136.000000 20 5 6
104.000000 65.000000 129.000000 106 20 28
104.000000 65.000000 130.000000 90 18 25
104.000000 65.000000 131.000000 80 19 16
104.000000 65.000000 132.000000 71 19 14
104.000000 65.000000 133.000000 63 17 14
104.000000 65.000000 134.000000 54 12 15
104.000000 65.000000 135.000000 30 7 8
104.000000 65.000000 136.000000 19 4 5
104.000000 65.000000 137.000000 9 2 2
104.000000 65.000000 139.000000 1 0 0
104.000000 66.000000 129.000000 108 26 29
104.000000 66.000000 130.000000 93 23 22
104.000000 66.000000 131.000000 84 19 21
104.000000 66.000000 132.000000 73 16 18
104.000000 66.000000 135.000000 56 15 17
104.000000 66.000000 136.000000 33 9 9
104.000000 66.000000 137.000000 22 6 6
104.000000 66.000000 138.000000 11 3 3
104.000000 66.000000 139.000000 0 0 0
104.000000 67.000000 137.000000 35 11 10
104.000000 67.000000 138.000000 11 3 3
104.000000 67.000000 139.000000 0 0 0
104.000000 68.000000 137.000000 35 11 9
104.000000 68.000000 138.000000 24 7 6
104.000000 68.000000 139.000000 13 4 3
104.000000 69.000000 137.000000 34 11 12
104.000000 69.000000 138.000000 23 7 7
104.000000 69.000000 139.000000 13 4 3
104.000000 69.000000 140.000000 2 0 0
104.000000 70.000000 138.000000 37 12 12
104.000000 70.000000 139.000000 26 8 9
104.000000 70.000000 140.000000 1 0 0
104.000000 71.000000 139.000000 39 13 14
104.000000 71.000000 140.000000 29 9 10
104.000000 71.000000 141.000000 4 1 1
104.000000 72.000000 141.000000 4 1 1
104.000000 112.000000 96.000000 94 92 95
104.000000 112.000000 97.000000 92 87 93
104.000000 113.000000 95.000000 82 83 85
104.000000 113.000000 96.000000 62 62 61
104.000000 113.000000 97.000000 66 66 67
104.000000 113.000000 98.000000 54 53 57
104.000000 114.000000 92.000000 75 75 87
104.000000 114.000000 93.000000 101 101 108
104.000000 114.000000 94.000000 67 68 73
104.000000 114.000000 95.000000 55 57 65
104.000000 114.000000 96.000000 68 71 74
104.000000 114.000000 97.000000 41 42 42
104.000000 114.000000 98.000000 46 46 45
104.000000 115.000000 92.000000 80 83 93
104.000000 115.000000 93.000000 84 86 97
104.000000 115.000000 94.000000 80 80 88
104.000000 115.000000 95.000000 63 62 70
104.000000 115.000000 96.000000 47 47 51
104.000000 115.000000 97.000000 33 36 37
104.000000 115.000000 98.000000 26 28 28
104.000000 116.000000 89.000000 72 75 86
104.000000 116.000000 90.000000 64 70 79
104.000000 116.000000 91.000000 76 82 89
104.000000 116.000000 92.000000 82 87 93
104.000000 116.000000 93.000000 51 55 61
104.000000 116.000000 94.000000 42 45 49
104.000000 116.000000 95.000000 43 45 48
104.000000 116.000000 96.000000 43 45 44
104.000000 116.000000 97.000000 28 29 30
104.000000 116.000000 98.000000 19 19 21
104.000000 117.000000 86.000000 84 95 113
104.000000 117.000000 87.000000 86 102 117
104.000000 117.000000 88.000000 62 74 84
104.000000 117.000000 89.000000 80 91 99
104.000000 117.000000 90.000000 98 105 111
104.000000 117.000000 91.000000 85 91 98
104.000000 117.000000 92.000000 41 47 56
104.000000 117.000000 93.000000 50 54 61
104.000000 117.000000 94.000000 50 53 59
104.000000 117.000000 95.000000 45 48 52
104.000000 117.000000 96.000000 14 17 17
104.000000 117.000000 97.000000 17 19 19
104.000000 117.000000 98.000000 8 7 9
104.000000 117.000000 99.000000 1 1 2
104.000000 118.000000 84.000000 83 89 104
104.000000 118.000000 85.000000 81 97 108
104.000000 118.000000 86.000000 68 70 83
104.000000 118.000000 87.000000 89 98 100
104.000000 118.000000 88.000000 84 89 95
104.000000 118.000000 89.000000 80 84 89
104.000000 118.000000 90.000000 50 52 58
104.000000 118.000000 91.000000 41 43 48
104.000000 118.000000 92.000000 51 54 63
104.000000 118.000000 93.000000 43 44 52
104.000000 118.000000 94.000000 42 41 46
104.000000 118.000000 95.000000 31 31 34
104.000000 118.000000 96.000000 22 22 24
104.000000 118.000000 97.000000 4 4 5
104.000000 119.000000 83.000000 87 104 123
104.000000 119.000000 84.000000 68 74 83
104.000000 119.000000 85.000000 75 79 96
104.000000 119.000000 86.000000 59 70 80
104.000000 119.000000 87.000000 79 86 89
104.000000 119.000000 88.000000 51 57 64
104.000000 119.000000 89.000000 39 48 50
104.000000 119.000000 90.000000 53 61 63
104.000000 119.000000 91.000000 47 56 57
104.000000 119.000000 92.000000 32 34 41
104.000000 119.000000 93.000000 17 18 23
104.000000 119.000000 94.000000 21 22 25
104.000000 119.000000 95.000000 7 7 9
104.000000 119.000000 96.000000 5 6 6
104.000000 119.000000 97.000000 5 5 5
104.000000 120.000000 80.000000 96 105 122
104.000000 120.000000 81.000000 85 93 109
104.000000 120.000000 82.000000 75 83 90
104.000000 120.000000 83.000000 53 59 70
104.000000 120.000000 84.000000 83 90 96
104.000000 120.000000 85.000000 84 89 99
104.000000 120.000000 86.000000 75 80 83
104.000000 120.000000 87.000000 34 37 42
104.000000 120.000000 88.000000 51 56 62
104.000000 120.000000 89.000000 54 58 65
104.000000 120.000000 90.000000 41 45 49
104.000000 120.000000 91.000000 15 19 21
104.000000 120.000000 92.000000 19 21 23
104.000000 120.000000 93.000000 11 12 13
104.000000 120.000000 94.000000 5 6 6
104.000000 120.000000 95.000000 0 0 0
104.000000 121.000000 77.000000 100 107 119
104.000000 121.000000 78.000000 102 111 123
104.000000 121.000000 79.000000 78 88 99
104.000000 121.000000 80.000000 79 87 95
104.000000 121.000000 81.000000 61 68 80
104.000000 121.000000 82.000000 87 94 101
104.000000 121.000000 83.000000 61 66 77
104.000000 121.000000 84.000000 74 82 87
104.000000 121.000000 85.000000 48 55 62
104.000000 121.000000 86.000000 38 44 44
104.000000 121.000000 87.000000 45 48 51
104.000000 121.000000 88.000000 39 42 48
104.000000 121.000000 89.000000 19 22 26
104.000000 121.000000 90.000000 14 17 19
104.000000 121.000000 91.000000 13 14 16
104.000000 121.000000 92.000000 5 6 7
104.000000 122.000000 75.000000 71 73 94
104.000000 122.000000 76.000000 114 116 129
104.000000 122.000000 77.000000 65 74 90
104.000000 122.000000 78.000000 76 82 99
104.000000 122.000000 79.000000 53 59 73
104.000000 122.000000 80.000000 53 67 78
104.000000 122.000000 81.000000 65 75 85
104.000000 122.000000 82.000000 80 94 102
104.000000 122.000000 83.000000 53 57 69
104.000000 122.000000 84.000000 30 36 44
104.000000 122.000000 85.000000 48 54 58
104.000000 122.000000 86.000000 38 43 48
104.000000 122.000000 87.000000 37 39 45
104.000000 122.000000 88.000000 12 14 19
104.000000 122.000000 89.000000 14 16 18
104.000000 122.000000 90.000000 5 6 7
104.000000 122.000000 91.000000 0 0 0
104.000000 123.000000 72.000000 94 104 123
104.000000 123.000000 73.000000 76 76 106
104.000000 123.000000 74.000000 88 95 113
104.000000 123.000000 75.000000 92 93 110
104.000000 123.000000 76.000000 77 84 93
104.000000 123.000000 77.000000 58 62 75
104.000000 123.000000 78.000000 53 58 69
104.000000 123.000000 79.000000 68 73 85
